13.828964,-0.789887,-26.551043,0.411765,0.447059,0.262745,1.0,
13.839016,-0.789979,-26.542033,0.427451,0.450980,0.262745,1.0,
8.023867,-0.200612,-16.016243,0.415686,0.525490,0.337255,1.0,
7.907848,-0.311934,-15.786070,0.262745,0.364706,0.180392,1.0,
7.924545,-0.289336,-15.817560,0.294118,0.400000,0.223529,1.0,
7.910044,-0.308701,-15.790186,0.321569,0.435294,0.247059,1.0,
7.370871,-0.204038,-14.761083,0.270588,0.403922,0.203922,1.0,
7.908879,-0.315384,-15.788128,0.258824,0.360784,0.176471,1.0,
8.238585,-0.218037,-16.426144,0.431373,0.549020,0.345098,1.0,
8.485177,-0.346701,-16.897120,0.294118,0.400000,0.223529,1.0,
18.005596,-0.873174,-37.252847,0.325490,0.443137,0.231373,1.0,
18.010242,-0.872390,-37.244062,0.266667,0.396078,0.188235,1.0,
18.043164,-0.882950,-37.242850,0.278431,0.388235,0.196078,1.0,
18.043975,-0.892961,-37.244576,0.290196,0.384314,0.188235,1.0,
18.058003,-0.901098,-37.254109,0.290196,0.384314,0.188235,1.0,
17.990334,-0.834916,-37.221032,0.223529,0.333333,0.145098,1.0,
17.999606,-1.051148,-37.241691,0.411765,0.513725,0.329412,1.0,
17.853505,-1.192643,-37.326089,0.196078,0.301961,0.141176,1.0,
17.836990,-1.183409,-37.335520,0.266667,0.392157,0.239216,1.0,
17.823975,-1.172993,-37.334067,0.231373,0.349020,0.207843,1.0,
17.814923,-1.182926,-37.332956,0.254902,0.360784,0.223529,1.0,
17.820268,-1.181778,-37.326823,0.270588,0.388235,0.239216,1.0,
17.852139,-1.192556,-37.348068,0.227451,0.337255,0.180392,1.0,
17.869058,-1.201977,-37.342001,0.184314,0.290196,0.129412,1.0,
17.881003,-1.203053,-37.340636,0.192157,0.290196,0.125490,1.0,
17.865497,-1.192421,-37.334320,0.196078,0.301961,0.141176,1.0,
17.888174,-1.192506,-37.336939,0.192157,0.290196,0.125490,1.0,
17.887080,-1.202027,-37.335060,0.192157,0.290196,0.125490,1.0,
17.916002,-1.212462,-37.327126,0.341176,0.407843,0.235294,1.0,
17.902245,-1.211170,-37.324154,0.341176,0.407843,0.235294,1.0,
17.924881,-1.211870,-37.329755,0.423529,0.486275,0.309804,1.0,
17.934305,-1.212757,-37.321825,0.462745,0.513725,0.341176,1.0,
17.976835,-1.240249,-37.307453,0.290196,0.329412,0.184314,1.0,
17.930204,-1.221725,-37.313300,0.376471,0.427451,0.254902,1.0,
18.011785,-1.050495,-37.248569,0.364706,0.470588,0.294118,1.0,
18.010544,-1.059832,-37.246171,0.360784,0.458824,0.294118,1.0,
18.003086,-1.051089,-37.268726,0.400000,0.509804,0.317647,1.0,
18.031448,-1.061867,-37.264674,0.360784,0.458824,0.294118,1.0,
18.032731,-1.071512,-37.267265,0.243137,0.329412,0.176471,1.0,
18.020358,-1.051569,-37.241907,0.388235,0.486275,0.321569,1.0,
17.988634,-0.844711,-37.217634,0.164706,0.278431,0.090196,1.0,
17.982743,-1.013687,-37.273620,0.223529,0.333333,0.145098,1.0,
17.988678,-1.041832,-37.286151,0.431373,0.541176,0.341176,1.0,
17.990132,-1.014056,-37.263115,0.254902,0.368627,0.180392,1.0,
17.984259,-1.022967,-37.276820,0.317647,0.435294,0.239216,1.0,
17.995919,-1.042841,-37.275303,0.400000,0.509804,0.317647,1.0,
18.001114,-1.032043,-37.264446,0.301961,0.419608,0.223529,1.0,
17.993903,-1.022086,-37.249472,0.231373,0.345098,0.156863,1.0,
17.994921,-1.024193,-37.273054,0.317647,0.435294,0.239216,1.0,
18.004559,-1.023443,-37.251719,0.231373,0.345098,0.156863,1.0,
18.017707,-1.023062,-37.236446,0.254902,0.360784,0.184314,1.0,
17.999291,-1.013211,-37.260508,0.254902,0.368627,0.180392,1.0,
17.989918,-1.024830,-37.305906,0.231373,0.341176,0.149020,1.0,
17.990353,-1.032770,-37.289532,0.317647,0.435294,0.239216,1.0,
17.996657,-1.033534,-37.276712,0.317647,0.435294,0.239216,1.0,
18.031699,-1.022561,-37.244510,0.274510,0.372549,0.207843,1.0,
17.986420,-0.833751,-37.232994,0.247059,0.360784,0.172549,1.0,
18.000504,-0.833773,-37.223775,0.223529,0.333333,0.145098,1.0,
18.008888,-0.852857,-37.241167,0.200000,0.313725,0.125490,1.0,
18.047699,-0.915034,-37.381102,0.274510,0.364706,0.192157,1.0,
18.075329,-1.109463,-37.268706,0.247059,0.317647,0.168627,1.0,
18.064985,-1.260635,-37.289366,0.325490,0.388235,0.243137,1.0,
18.034138,-1.261036,-37.338681,0.262745,0.305882,0.172549,1.0,
18.068584,-1.259763,-37.282052,0.325490,0.388235,0.243137,1.0,
18.036962,-1.215713,-37.360305,0.325490,0.364706,0.227451,1.0,
18.043286,-1.224088,-37.355681,0.325490,0.364706,0.227451,1.0,
18.061118,-1.203967,-37.308340,0.313725,0.411765,0.254902,1.0,
18.072990,-1.231783,-37.290347,0.305882,0.388235,0.235294,1.0,
18.078383,-1.119110,-37.275000,0.231373,0.317647,0.168627,1.0,
18.087068,-1.118422,-37.273748,0.262745,0.333333,0.168627,1.0,
18.087287,-1.128127,-37.274396,0.243137,0.333333,0.168627,1.0,
18.128592,-1.130278,-37.293044,0.321569,0.392157,0.235294,1.0,
18.105649,-1.065035,-37.330511,0.250980,0.321569,0.172549,1.0,
18.117103,-1.102097,-37.311988,0.274510,0.333333,0.172549,1.0,
18.108200,-1.055791,-37.335613,0.266667,0.337255,0.188235,1.0,
18.086201,-0.913340,-37.354765,0.278431,0.364706,0.180392,1.0,
18.047177,-0.999513,-37.406143,0.231373,0.337255,0.160784,1.0,
18.041175,-1.008692,-37.393833,0.223529,0.333333,0.145098,1.0,
18.066718,-0.944751,-37.420371,0.243137,0.325490,0.172549,1.0,
18.070304,-0.943198,-37.406316,0.270588,0.352941,0.192157,1.0,
18.088922,-1.027599,-37.337914,0.274510,0.372549,0.207843,1.0,
18.058845,-0.999123,-37.382904,0.235294,0.341176,0.164706,1.0,
18.066067,-0.990437,-37.378194,0.219608,0.325490,0.156863,1.0,
18.053383,-1.000552,-37.393191,0.231373,0.337255,0.160784,1.0,
18.069360,-1.000206,-37.385029,0.219608,0.325490,0.156863,1.0,
18.064151,-1.007588,-37.355050,0.192157,0.305882,0.125490,1.0,
18.102069,-1.036465,-37.322831,0.223529,0.305882,0.152941,1.0,
18.091379,-0.989459,-37.366208,0.231373,0.337255,0.176471,1.0,
18.109709,-1.019354,-37.380371,0.243137,0.349020,0.188235,1.0,
18.108669,-0.989448,-37.358709,0.266667,0.372549,0.211765,1.0,
18.091413,-1.008258,-37.366646,0.243137,0.349020,0.180392,1.0,
18.120605,-0.990527,-37.360097,0.247059,0.345098,0.188235,1.0,
18.104553,-1.027133,-37.350889,0.278431,0.364706,0.211765,1.0,
18.060528,-0.923931,-37.366362,0.317647,0.407843,0.235294,1.0,
18.064253,-0.981065,-37.374488,0.254902,0.352941,0.188235,1.0,
18.056435,-0.951940,-37.377781,0.286275,0.372549,0.219608,1.0,
18.085661,-0.981792,-37.375501,0.211765,0.317647,0.149020,1.0,
18.115537,-0.924938,-37.349482,0.290196,0.376471,0.192157,1.0,
18.103568,-0.979737,-37.348112,0.192157,0.290196,0.125490,1.0,
18.075404,-0.915067,-37.353569,0.301961,0.396078,0.207843,1.0,
18.536565,-1.038186,-36.244904,0.298039,0.419608,0.258824,1.0,
18.509354,-1.112036,-36.272732,0.215686,0.313725,0.149020,1.0,
17.086372,-1.031531,-36.464686,0.254902,0.356863,0.168627,1.0,
17.086955,-1.031527,-36.441940,0.254902,0.356863,0.168627,1.0,
17.088307,-1.157784,-36.404838,0.356863,0.458824,0.274510,1.0,
17.038411,-1.068064,-36.492357,0.305882,0.450980,0.239216,1.0,
17.023460,-1.068102,-36.479442,0.305882,0.450980,0.239216,1.0,
17.076059,-1.051687,-36.503932,0.321569,0.435294,0.223529,1.0,
17.107015,-1.167214,-36.427739,0.349020,0.435294,0.262745,1.0,
17.043455,-1.112747,-36.460203,0.298039,0.411765,0.200000,1.0,
17.065236,-1.122201,-36.440575,0.403922,0.505882,0.294118,1.0,
17.062431,-1.130956,-36.434602,0.403922,0.505882,0.294118,1.0,
17.073957,-1.130395,-36.440792,0.403922,0.505882,0.294118,1.0,
17.047786,-1.112991,-36.444416,0.294118,0.407843,0.176471,1.0,
17.056310,-1.121217,-36.445479,0.349020,0.458824,0.243137,1.0,
17.053431,-1.112088,-36.439077,0.345098,0.454902,0.200000,1.0,
17.082451,-1.112974,-36.433126,0.427451,0.509804,0.294118,1.0,
17.071099,-1.121389,-36.434473,0.498039,0.592157,0.349020,1.0,
17.086824,-1.114997,-36.486567,0.345098,0.458824,0.200000,1.0,
17.101144,-1.113276,-36.453999,0.427451,0.513725,0.294118,1.0,
17.081348,-1.112918,-36.456018,0.494118,0.592157,0.349020,1.0,
17.089796,-1.122780,-36.448756,0.380392,0.470588,0.258824,1.0,
17.106903,-1.168520,-36.444360,0.356863,0.458824,0.274510,1.0,
17.102489,-1.157625,-36.417781,0.313725,0.403922,0.223529,1.0,
17.049435,-1.067526,-36.471624,0.313725,0.454902,0.243137,1.0,
17.049984,-1.085655,-36.473204,0.290196,0.423529,0.203922,1.0,
17.051186,-1.104120,-36.476404,0.294118,0.407843,0.176471,1.0,
17.091039,-1.104752,-36.476431,0.576471,0.682353,0.419608,1.0,
17.087871,-1.086283,-36.469086,0.411765,0.513725,0.266667,1.0,
17.093231,-1.095990,-36.455950,0.447059,0.541176,0.298039,1.0,
17.053563,-1.076809,-36.480657,0.290196,0.423529,0.203922,1.0,
17.040031,-1.068061,-36.471538,0.309804,0.450980,0.239216,1.0,
17.055253,-1.068078,-36.459652,0.305882,0.431373,0.215686,1.0,
17.075109,-1.058984,-36.484273,0.321569,0.435294,0.223529,1.0,
17.078597,-1.059597,-36.469042,0.309804,0.419608,0.200000,1.0,
17.089065,-1.058818,-36.470893,0.262745,0.364706,0.156863,1.0,
17.085279,-1.049474,-36.462644,0.258824,0.364706,0.156863,1.0,
17.096477,-1.077836,-36.462648,0.345098,0.439216,0.203922,1.0,
17.097380,-1.059709,-36.464359,0.286275,0.380392,0.164706,1.0,
17.109538,-1.050449,-36.449110,0.305882,0.396078,0.200000,1.0,
17.134645,-1.114720,-36.459291,0.368627,0.450980,0.270588,1.0,
17.093091,-1.216028,-36.526986,0.376471,0.443137,0.278431,1.0,
17.162585,-1.210035,-36.562586,0.349020,0.431373,0.250980,1.0,
17.151412,-1.178586,-36.453959,0.270588,0.356863,0.203922,1.0,
17.110082,-1.187109,-36.451102,0.352941,0.431373,0.262745,1.0,
17.098860,-1.207268,-36.512285,0.392157,0.466667,0.290196,1.0,
17.138822,-1.215781,-36.496992,0.345098,0.419608,0.243137,1.0,
17.108041,-1.196238,-36.472213,0.392157,0.478431,0.298039,1.0,
17.151494,-1.187681,-36.454130,0.270588,0.356863,0.203922,1.0,
17.151724,-1.213526,-36.409966,0.341176,0.419608,0.274510,1.0,
17.152149,-1.206053,-36.455596,0.290196,0.372549,0.215686,1.0,
17.152814,-1.215240,-36.457092,0.341176,0.423529,0.262745,1.0,
17.168684,-1.213741,-36.431853,0.341176,0.419608,0.274510,1.0,
17.151301,-1.196988,-36.453701,0.290196,0.372549,0.219608,1.0,
17.238509,-1.180522,-36.464251,0.286275,0.407843,0.235294,1.0,
17.215363,-1.215391,-36.448109,0.282353,0.356863,0.231373,1.0,
17.237649,-1.189493,-36.462517,0.262745,0.372549,0.211765,1.0,
17.245365,-1.188778,-36.462784,0.262745,0.372549,0.211765,1.0,
17.248425,-1.179931,-36.468807,0.286275,0.407843,0.235294,1.0,
17.257250,-1.189890,-36.466003,0.274510,0.400000,0.215686,1.0,
17.257537,-1.208233,-36.467135,0.274510,0.380392,0.203922,1.0,
17.101656,-1.098079,-36.518186,0.454902,0.564706,0.301961,1.0,
17.096403,-1.099053,-36.572484,0.278431,0.400000,0.188235,1.0,
17.111475,-1.098706,-36.562298,0.356863,0.478431,0.243137,1.0,
17.094772,-1.107956,-36.544378,0.290196,0.407843,0.180392,1.0,
17.112274,-1.091255,-36.581327,0.356863,0.478431,0.243137,1.0,
17.116298,-1.090106,-36.572448,0.356863,0.478431,0.243137,1.0,
17.108162,-1.099978,-36.572760,0.360784,0.474510,0.243137,1.0,
17.119509,-1.108754,-36.556177,0.450980,0.560784,0.301961,1.0,
17.135889,-1.123969,-36.462002,0.321569,0.396078,0.219608,1.0,
17.122742,-1.122920,-36.459262,0.376471,0.458824,0.274510,1.0,
17.106457,-1.142615,-36.510206,0.345098,0.447059,0.239216,1.0,
17.116539,-1.114791,-36.464855,0.376471,0.458824,0.274510,1.0,
17.121849,-1.113519,-36.457089,0.376471,0.458824,0.274510,1.0,
17.139871,-1.133343,-36.470515,0.325490,0.396078,0.219608,1.0,
17.137776,-1.131758,-36.448277,0.298039,0.368627,0.211765,1.0,
17.130712,-1.141723,-36.451217,0.298039,0.376471,0.196078,1.0,
17.128211,-1.159848,-36.445872,0.290196,0.380392,0.215686,1.0,
17.138507,-1.159226,-36.451091,0.290196,0.380392,0.215686,1.0,
17.140840,-1.159469,-36.431677,0.282353,0.364706,0.211765,1.0,
17.151752,-1.168276,-36.436606,0.258824,0.345098,0.196078,1.0,
17.114946,-1.149706,-36.443835,0.309804,0.403922,0.219608,1.0,
17.128671,-1.150723,-36.446859,0.282353,0.352941,0.196078,1.0,
17.147778,-1.141839,-36.446589,0.294118,0.364706,0.207843,1.0,
17.133976,-1.149759,-36.441023,0.282353,0.352941,0.196078,1.0,
17.135448,-1.149818,-36.420328,0.282353,0.364706,0.211765,1.0,
17.140220,-1.149034,-36.411514,0.282353,0.364706,0.211765,1.0,
17.154839,-1.141026,-36.441976,0.282353,0.364706,0.211765,1.0,
17.153520,-1.169770,-36.458501,0.290196,0.376471,0.223529,1.0,
17.154688,-1.159307,-36.442481,0.278431,0.360784,0.207843,1.0,
17.164236,-1.141734,-36.436538,0.278431,0.364706,0.215686,1.0,
17.131375,-1.140508,-36.435042,0.286275,0.356863,0.196078,1.0,
17.165402,-1.123552,-36.463522,0.337255,0.419608,0.258824,1.0,
17.149645,-1.132900,-36.450590,0.298039,0.368627,0.211765,1.0,
17.157683,-1.131996,-36.447652,0.282353,0.364706,0.211765,1.0,
17.145019,-1.114402,-36.463160,0.368627,0.450980,0.270588,1.0,
17.156117,-1.115360,-36.464105,0.337255,0.423529,0.258824,1.0,
17.169201,-1.124162,-36.446619,0.278431,0.364706,0.211765,1.0,
17.168749,-1.133256,-36.445852,0.278431,0.364706,0.211765,1.0,
17.245947,-1.143121,-36.462004,0.309804,0.415686,0.258824,1.0,
17.087273,-1.051399,-36.487435,0.262745,0.364706,0.156863,1.0,
17.089192,-1.087992,-36.491709,0.415686,0.509804,0.266667,1.0,
17.100679,-1.096493,-36.496635,0.454902,0.564706,0.301961,1.0,
17.124403,-1.088037,-36.481219,0.313725,0.415686,0.207843,1.0,
17.102849,-1.105982,-36.476451,0.576471,0.682353,0.419608,1.0,
17.113809,-1.095867,-36.480634,0.447059,0.541176,0.301961,1.0,
17.114873,-1.105512,-36.483055,0.427451,0.513725,0.294118,1.0,
17.105767,-1.086121,-36.463573,0.454902,0.541176,0.301961,1.0,
17.104570,-1.087887,-36.479919,0.454902,0.541176,0.301961,1.0,
17.125377,-1.086697,-36.463839,0.309804,0.411765,0.203922,1.0,
17.153149,-1.087434,-36.480083,0.294118,0.400000,0.211765,1.0,
17.125759,-1.097285,-36.484214,0.349020,0.447059,0.231373,1.0,
17.127821,-1.106566,-36.488682,0.352941,0.447059,0.231373,1.0,
17.144664,-1.097307,-36.480323,0.298039,0.396078,0.207843,1.0,
17.138793,-1.105967,-36.467916,0.356863,0.450980,0.262745,1.0,
17.148870,-1.096493,-36.471090,0.290196,0.388235,0.211765,1.0,
17.144998,-1.079393,-36.480861,0.294118,0.400000,0.211765,1.0,
17.138216,-1.087716,-36.466498,0.294118,0.392157,0.203922,1.0,
17.100656,-1.068904,-36.495759,0.341176,0.439216,0.203922,1.0,
17.093751,-1.070054,-36.501399,0.309804,0.419608,0.200000,1.0,
17.109233,-1.069887,-36.489673,0.341176,0.439216,0.203922,1.0,
17.130514,-1.050357,-36.474253,0.305882,0.396078,0.200000,1.0,
17.107048,-1.068178,-36.466125,0.278431,0.372549,0.156863,1.0,
17.105517,-1.077179,-36.462976,0.321569,0.415686,0.192157,1.0,
17.115999,-1.078260,-36.463291,0.317647,0.415686,0.188235,1.0,
17.124037,-1.069908,-36.480216,0.278431,0.372549,0.156863,1.0,
17.127124,-1.077422,-36.467336,0.321569,0.431373,0.231373,1.0,
17.105738,-1.049805,-36.463218,0.278431,0.368627,0.172549,1.0,
17.104326,-1.051326,-36.479039,0.286275,0.380392,0.164706,1.0,
17.104832,-1.058837,-36.461384,0.286275,0.380392,0.164706,1.0,
17.112900,-1.059701,-36.456418,0.278431,0.372549,0.156863,1.0,
17.138238,-1.060102,-36.490725,0.305882,0.396078,0.196078,1.0,
17.152843,-1.069398,-36.479332,0.262745,0.372549,0.192157,1.0,
17.133619,-1.059969,-36.456686,0.290196,0.396078,0.207843,1.0,
17.134593,-1.104287,-36.440945,0.368627,0.450980,0.270588,1.0,
17.119264,-1.095235,-36.451069,0.349020,0.447059,0.231373,1.0,
17.152319,-1.086119,-36.434692,0.290196,0.396078,0.219608,1.0,
17.157302,-1.086639,-36.420989,0.309804,0.403922,0.239216,1.0,
17.153351,-1.078643,-36.457770,0.290196,0.396078,0.219608,1.0,
17.154107,-1.096833,-36.459656,0.290196,0.388235,0.211765,1.0,
17.150653,-1.087429,-36.452149,0.298039,0.400000,0.219608,1.0,
17.170999,-1.086143,-36.432275,0.298039,0.400000,0.239216,1.0,
17.175762,-1.086816,-36.418114,0.274510,0.372549,0.215686,1.0,
17.136587,-1.049784,-36.444674,0.325490,0.427451,0.258824,1.0,
17.119232,-1.067707,-36.450439,0.325490,0.431373,0.231373,1.0,
17.136352,-1.069311,-36.462569,0.325490,0.431373,0.231373,1.0,
17.128766,-1.050655,-36.446384,0.290196,0.396078,0.207843,1.0,
17.156538,-1.051486,-36.464203,0.250980,0.352941,0.192157,1.0,
17.152108,-1.069456,-36.455059,0.262745,0.372549,0.192157,1.0,
17.160822,-1.077463,-36.452549,0.274510,0.376471,0.207843,1.0,
17.166107,-1.068833,-36.463521,0.270588,0.376471,0.207843,1.0,
17.148380,-1.059901,-36.469735,0.286275,0.392157,0.203922,1.0,
17.156532,-1.060550,-36.464284,0.262745,0.372549,0.192157,1.0,
17.147675,-1.106747,-36.511631,0.356863,0.450980,0.262745,1.0,
17.187351,-1.098275,-36.484599,0.309804,0.403922,0.239216,1.0,
17.170202,-1.096732,-36.472809,0.313725,0.407843,0.243137,1.0,
17.256175,-1.135233,-36.464585,0.247059,0.356863,0.200000,1.0,
17.276653,-1.117040,-36.486782,0.231373,0.341176,0.180392,1.0,
17.279610,-1.108316,-36.492741,0.286275,0.400000,0.227451,1.0,
17.289753,-1.159570,-36.389125,0.196078,0.258824,0.152941,1.0,
17.225698,-1.215753,-36.437123,0.278431,0.364706,0.215686,1.0,
17.228781,-1.214729,-36.429133,0.278431,0.364706,0.215686,1.0,
17.246291,-1.216459,-36.443832,0.313725,0.400000,0.247059,1.0,
17.248550,-1.215277,-36.431647,0.313725,0.400000,0.247059,1.0,
17.273015,-1.215572,-36.412474,0.301961,0.403922,0.215686,1.0,
17.314783,-1.179947,-36.413878,0.286275,0.352941,0.227451,1.0,
17.276111,-1.171966,-36.460876,0.266667,0.380392,0.207843,1.0,
17.262579,-1.207330,-36.461030,0.274510,0.380392,0.203922,1.0,
17.271671,-1.215671,-36.436866,0.274510,0.384314,0.196078,1.0,
17.294345,-1.207276,-36.441868,0.309804,0.411765,0.227451,1.0,
17.290969,-1.215878,-36.434900,0.301961,0.403922,0.215686,1.0,