25.771254,9.126597,9.235326,0.287340,0.669501,0.364004,1.000000,
25.571620,25.172509,9.120670,0.357383,0.635469,0.534638,1.000000,
22.682013,5.185877,9.193668,0.613112,0.542846,0.701271,1.000000,
32.351386,0.165593,9.183213,0.414529,0.252068,0.338294,1.000000,
33.476795,6.509713,9.004338,0.921378,0.073900,0.976579,1.000000,
22.562377,16.046797,9.175609,0.321078,0.387182,0.649651,1.000000,
24.826309,10.274077,9.126424,0.751011,0.954674,0.945818,1.000000,
29.664758,4.972292,9.010602,0.205397,0.024173,0.639715,1.000000,
24.523256,18.354985,9.197778,0.303661,0.591344,0.057930,1.000000,
39.530409,8.546175,9.233601,0.268658,0.884375,0.425410,1.000000,
40.119761,9.069638,9.052949,0.693142,0.581903,0.472805,1.000000,
30.044057,15.021548,9.276026,0.166851,0.716317,0.955868,1.000000,
23.745840,15.860707,9.097939,0.531561,0.716578,0.571389,1.000000,
31.645611,0.424844,9.084654,0.201309,0.379149,0.036739,1.000000,
37.712218,3.542832,9.210608,0.157170,0.154268,0.803490,1.000000,
33.585431,4.174431,9.281651,0.756945,0.157502,0.336983,1.000000,
35.288269,22.862557,9.249046,0.914743,0.462561,0.310592,1.000000,
30.803037,6.209067,9.136501,0.219757,0.035016,0.520952,1.000000,
35.952666,15.105414,9.121674,0.168698,0.726494,0.581650,1.000000,
27.073150,7.012650,9.296628,0.799184,0.751873,0.640989,1.000000,
21.599027,19.863933,9.083658,0.611404,0.450590,0.552660,1.000000,
31.475761,19.254366,9.089984,0.773494,0.286863,0.023801,1.000000,
25.101463,25.490104,9.130161,0.553898,0.142328,0.437175,1.000000,
41.240296,26.216973,9.131947,0.293617,0.493704,0.220860,1.000000,
37.025039,28.404893,9.143783,0.590603,0.365110,0.693098,1.000000,
33.868669,24.256915,9.056867,0.163707,0.780877,0.646749,1.000000,
29.112262,2.301228,9.149214,0.371432,0.139424,0.419310,1.000000,
40.139357,9.000320,9.263168,0.901978,0.746410,0.888771,1.000000,
32.252867,3.156948,9.056774,0.410454,0.620603,0.574747,1.000000,
36.741495,21.087153,9.001928,0.830105,0.907755,0.249445,1.000000,
29.565295,13.581052,9.064891,0.973436,0.717877,0.438724,1.000000,
28.163800,10.488157,9.162853,0.561048,0.117553,0.400735,1.000000,
36.684860,24.160501,9.158720,0.683836,0.870676,0.494227,1.000000,
37.905990,1.718233,9.226207,0.545784,0.065958,0.408062,1.000000,
29.273865,5.648306,9.193371,0.749088,0.001347,0.861293,1.000000,
37.276908,8.386380,9.204744,0.643354,0.306666,0.908812,1.000000,
31.662778,22.591569,9.213583,0.145898,0.396320,0.676143,1.000000,
29.279403,12.200704,9.143975,0.838016,0.285918,0.383473,1.000000,
29.039103,9.551642,9.085194,0.130128,0.649054,0.871697,1.000000,
39.552020,13.157283,9.035462,0.686559,0.260231,0.177918,1.000000,
36.338211,10.510750,9.160699,0.940306,0.986044,0.105504,1.000000,
37.091225,13.824144,9.164137,0.455358,0.672910,0.145379,1.000000,
31.270436,12.366123,9.246805,0.111384,0.667248,0.328271,1.000000,
29.563691,28.413655,9.207556,0.061614,0.789356,0.816158,1.000000,
39.358318,28.436705,9.212426,0.776188,0.069405,0.660464,1.000000,
26.200168,13.813079,9.055051,0.002714,0.243246,0.237110,1.000000,
21.356371,11.105518,9.096449,0.606765,0.509871,0.704807,1.000000,
23.046364,10.101853,9.048535,0.356901,0.865727,0.766226,1.000000,
37.976504,14.653092,9.222562,0.394590,0.997391,0.537443,1.000000,
41.613218,25.545902,9.170015,0.396591,0.609833,0.156947,1.000000,
31.404580,2.044387,9.223377,0.419350,0.023180,0.237200,1.000000,
30.019525,15.787079,9.086330,0.827039,0.905634,0.192994,1.000000,
35.618107,9.864149,9.028209,0.726058,0.787376,0.778977,1.000000,
25.588509,10.263126,9.174587,0.905234,0.508552,0.970266,1.000000,
22.601457,21.930402,9.025559,0.782628,0.754617,0.358626,1.000000,
30.674431,24.994799,9.232493,0.326905,0.611007,0.873739,1.000000,
29.067805,21.232758,9.213462,0.201657,0.422153,0.158093,1.000000,
26.060409,4.744503,9.006288,0.655009,0.246585,0.815072,1.000000,
36.969304,29.304613,9.062922,0.108908,0.206307,0.288516,1.000000,
41.266107,16.793927,9.203216,0.885964,0.323515,0.051789,1.000000,
22.993426,14.164559,9.135939,0.587308,0.356828,0.188379,1.000000,
37.375950,11.858822,9.147965,0.781286,0.408000,0.675573,1.000000,
24.961401,2.530683,9.105804,0.596631,0.514404,0.673908,1.000000,
21.199219,8.291201,9.183569,0.174493,0.908795,0.582116,1.000000,
29.611625,11.009176,9.137061,0.080462,0.116941,0.132601,1.000000,
23.967846,23.915160,9.088464,0.828752,0.180037,0.690779,1.000000,
32.187946,0.354751,9.251322,0.153471,0.469115,0.018937,1.000000,
32.712954,6.890703,9.104317,0.061486,0.312142,0.111766,1.000000,
35.562234,20.612198,9.291052,0.589883,0.931958,0.950502,1.000000,
39.403741,1.100424,9.120742,0.465559,0.877757,0.255558,1.000000,
21.412327,23.590499,9.157320,0.462368,0.989405,0.953364,1.000000,
35.418476,19.829446,9.153107,0.909336,0.194377,0.507472,1.000000,
41.715037,22.652955,9.171779,0.159438,0.819408,0.438359,1.000000,
41.700991,15.529587,9.268023,0.793980,0.614210,0.246524,1.000000,
30.577705,29.710022,9.112470,0.672731,0.235228,0.867515,1.000000,
28.308221,5.337986,9.290403,0.918995,0.792114,0.389344,1.000000,
41.641192,13.110797,9.105986,0.561750,0.433431,0.090770,1.000000,
31.203271,18.917580,9.055183,0.201390,0.129682,0.331384,1.000000,
27.616980,20.208449,9.169518,0.255107,0.570250,0.776290,1.000000,
29.009082,27.524961,9.208010,0.622201,0.127837,0.827830,1.000000,
21.378220,27.228067,9.155885,0.376013,0.217928,0.055975,1.000000,
31.576267,1.914636,9.212343,0.358952,0.467756,0.305750,1.000000,
23.666832,19.116934,9.271695,0.028651,0.489737,0.821499,1.000000,
27.408666,14.432725,9.263077,0.767375,0.193454,0.520255,1.000000,
26.377229,8.625272,9.080284,0.237384,0.120132,0.735943,1.000000,
21.048128,21.646207,9.276137,0.665913,0.675585,0.414481,1.000000,
37.226968,15.146626,9.056810,0.748491,0.990160,0.233430,1.000000,
34.897776,20.318871,9.071499,0.728439,0.657187,0.145078,1.000000,
29.357293,24.071623,9.161528,0.814288,0.226411,0.278427,1.000000,
31.522075,20.499892,9.040121,0.740083,0.827994,0.281362,1.000000,
33.863573,3.464810,9.068192,0.644517,0.372674,0.418354,1.000000,
23.794521,28.729160,9.076959,0.099002,0.697467,0.031714,1.000000,
26.950431,10.066581,9.095217,0.999399,0.644953,0.426891,1.000000,
38.585407,9.548745,9.039895,0.418096,0.025331,0.053454,1.000000,
39.184556,20.050432,9.049200,0.075980,0.297734,0.937590,1.000000,
22.149935,4.403561,9.081365,0.741253,0.905624,0.943608,1.000000,
31.356875,8.340121,9.103569,0.999709,0.658230,0.571516,1.000000,
38.433117,19.782472,9.060893,0.548969,0.301986,0.770530,1.000000,
40.288188,16.266807,9.021456,0.593140,0.580839,0.290899,1.000000,
37.825889,8.522846,9.262044,0.154412,0.370652,0.093317,1.000000,
41.554400,29.285868,9.045562,0.636650,0.169072,0.871449,1.000000,
33.001040,17.237363,9.238286,0.546074,0.041420,0.349795,1.000000,
22.338886,21.815914,9.283910,0.284415,0.982374,0.662081,1.000000,
22.815111,26.379289,9.105430,0.657726,0.584894,0.359255,1.000000,
41.512775,19.862504,9.017677,0.994228,0.618133,0.164996,1.000000,
30.422954,15.654031,9.276416,0.509888,0.280020,0.612867,1.000000,
39.777572,7.642979,9.233146,0.205238,0.902236,0.081243,1.000000,
40.134967,20.210391,9.074756,0.632437,0.439975,0.947845,1.000000,
41.189703,25.773035,9.159511,0.683085,0.242693,0.625406,1.000000,
37.339270,14.175923,9.022080,0.455128,0.043488,0.279574,1.000000,
40.910121,27.375758,9.255478,0.084442,0.121900,0.499538,1.000000,
35.260634,1.874886,9.225396,0.990491,0.497378,0.699297,1.000000,
35.997352,14.626803,9.052924,0.039349,0.700907,0.793449,1.000000,
23.889523,27.452046,9.247862,0.741321,0.323077,0.510443,1.000000,
22.738278,14.694508,9.010108,0.586935,0.012864,0.086466,1.000000,
23.356743,14.529055,9.005383,0.956611,0.650776,0.671521,1.000000,
28.753524,8.223964,9.214466,0.399871,0.189908,0.304582,1.000000,
41.273724,2.732655,9.277307,0.513642,0.520247,0.951320,1.000000,
28.610184,19.978197,9.166465,0.793340,0.926400,0.541259,1.000000,
40.538268,3.766684,9.248653,0.395412,0.467534,0.140526,1.000000,
23.015637,3.264165,9.107042,0.160659,0.867891,0.913547,1.000000,
23.560542,13.286876,9.092034,0.569453,0.421945,0.057241,1.000000,
31.260855,16.593364,9.202150,0.597165,0.887616,0.312958,1.000000,
40.372675,28.876138,9.016850,0.820855,0.371493,0.228291,1.000000,
23.831569,17.145311,9.098043,0.993382,0.132446,0.866425,1.000000,
24.032003,2.276690,9.264983,0.342612,0.429369,0.871223,1.000000,
27.999612,10.874161,9.123326,0.000621,0.390001,0.862174,1.000000,
30.554834,0.584454,9.150650,0.063048,0.982534,0.234890,1.000000,
21.176230,13.917197,9.107173,0.465959,0.979575,0.359076,1.000000,
29.575131,28.676980,9.296653,0.987232,0.307462,0.501451,1.000000,
24.798492,29.327059,9.139468,0.039544,0.931876,0.547793,1.000000,
39.340400,4.289246,9.284046,0.366574,0.799491,0.480078,1.000000,
32.526464,8.183551,9.030070,0.170030,0.937408,0.836118,1.000000,
39.087658,29.126299,9.095870,0.866659,0.619281,0.198143,1.000000,
22.115564,23.157461,9.118299,0.638185,0.367811,0.136329,1.000000,
31.731814,18.175622,9.251570,0.887071,0.409297,0.033477,1.000000,
24.061714,25.271496,9.048077,0.764859,0.719574,0.783827,1.000000,
30.211799,20.357827,9.069952,0.485279,0.633283,0.793878,1.000000,
30.560471,27.705246,9.049150,0.068472,0.573626,0.653307,1.000000,
27.680869,29.241824,9.170576,0.517868,0.814430,0.692019,1.000000,
40.435836,1.742296,9.045856,0.406165,0.146368,0.042147,1.000000,
36.151813,0.791362,9.201188,0.581705,0.266377,0.934631,1.000000,
34.367802,21.293029,9.268989,0.966366,0.374482,0.598755,1.000000,
40.861821,19.199029,9.202454,0.962553,0.103060,0.139418,1.000000,
36.336885,14.038126,9.197385,0.998397,0.739375,0.767087,1.000000,
31.960465,16.714984,9.124217,0.513527,0.326017,0.615913,1.000000,
34.592089,2.830327,9.196668,0.722004,0.595407,0.577390,1.000000,
36.456136,24.597141,9.119410,0.145835,0.891891,0.506986,1.000000,
39.291192,11.242035,9.175659,0.186843,0.287898,0.831364,1.000000,
39.209015,27.366919,9.243528,0.237704,0.741531,0.342233,1.000000,
25.806151,25.181793,9.204558,0.919625,0.476565,0.878506,1.000000,
27.322006,17.787115,9.290536,0.081660,0.414747,0.310105,1.000000,
29.608008,2.877997,9.087023,0.695914,0.827695,0.682818,1.000000,
25.038904,7.149632,9.004725,0.188683,0.524448,0.004966,1.000000,
25.085560,0.698930,9.123038,0.817070,0.476245,0.337037,1.000000,
24.142504,4.620996,9.257166,0.324381,0.860787,0.457386,1.000000,
38.959267,26.413383,9.294847,0.800402,0.130660,0.289489,1.000000,
40.544257,3.568824,9.244852,0.815938,0.124569,0.769017,1.000000,
37.370926,25.798152,9.056833,0.317045,0.132166,0.135037,1.000000,
24.324194,25.964672,9.011919,0.203282,0.652713,0.852039,1.000000,
36.312480,26.863731,9.181774,0.161479,0.978227,0.788374,1.000000,
25.063600,0.350662,9.219162,0.911362,0.588634,0.681968,1.000000,
30.621872,23.882964,9.014467,0.707277,0.417234,0.388632,1.000000,
38.963542,5.464371,9.237667,0.120678,0.008962,0.867205,1.000000,
23.766903,0.969164,9.118585,0.640383,0.895842,0.181360,1.000000,
33.891233,4.894391,9.017935,0.148950,0.975286,0.212537,1.000000,
34.406640,16.445272,9.186221,0.081501,0.991417,0.962406,1.000000,
36.792601,23.051893,9.049557,0.744787,0.922280,0.433778,1.000000,
26.390126,23.385360,9.098798,0.192911,0.182157,0.595559,1.000000,
32.521794,10.472108,9.080983,0.000707,0.562077,0.754548,1.000000,
40.698810,21.247601,9.162326,0.021632,0.499944,0.692300,1.000000,
40.951415,9.918708,9.256118,0.402198,0.864409,0.443926,1.000000,
33.715823,18.481813,9.129663,0.591110,0.368597,0.615750,1.000000,
38.021931,13.766835,9.173406,0.047134,0.903521,0.167200,1.000000,
27.617202,6.573585,9.040943,0.003167,0.615304,0.648775,1.000000,
26.714815,12.961742,9.174463,0.576378,0.772102,0.247844,1.000000,
30.003627,19.181016,9.201361,0.350546,0.731571,0.515668,1.000000,
36.692500,24.934005,9.251082,0.162302,0.973556,0.566327,1.000000,
30.764637,21.261778,9.190321,0.623241,0.791410,0.721644,1.000000,
41.658543,5.393168,9.063545,0.551040,0.460159,0.331236,1.000000,
38.821780,17.397131,9.272010,0.849423,0.764924,0.990591,1.000000,
27.759101,23.336870,9.121544,0.401395,0.972103,0.318555,1.000000,
24.750533,22.771356,9.266591,0.054022,0.256031,0.171488,1.000000,
38.959721,7.518679,9.172515,0.998144,0.915740,0.791951,1.000000,
39.067994,10.313024,9.005013,0.043258,0.334590,0.051955,1.000000,
23.205104,21.921935,9.162121,0.125975,0.181453,0.791902,1.000000,
36.971051,8.618519,9.255796,0.458125,0.434338,0.861637,1.000000,
23.921362,13.316809,9.066774,0.802324,0.760573,0.106426,1.000000,
33.748402,25.194959,9.191102,0.403748,0.916358,0.173869,1.000000,
37.646937,29.509680,9.213744,0.754779,0.501787,0.014835,1.000000,
25.447625,18.436596,9.100119,0.339803,0.374723,0.285643,1.000000,
21.673071,5.296501,9.015235,0.343944,0.771578,0.007368,1.000000,
37.872204,1.922871,9.137802,0.612137,0.189764,0.762011,1.000000,
21.825447,20.570901,9.259683,0.940608,0.476994,0.879926,1.000000,
36.560994,6.898040,9.232757,0.177159,0.581160,0.795412,1.000000,
28.125676,19.935347,9.102606,0.117560,0.857357,0.265651,1.000000,
29.737908,25.326741,9.224460,0.458721,0.671456,0.623386,1.000000,
25.069713,22.051380,9.187438,0.976384,0.193448,0.052677,1.000000,
40.888197,26.985067,9.218428,0.793503,0.933515,0.737147,1.000000,
23.846675,7.327090,9.201035,0.157044,0.598932,0.337561,1.000000,
30.856859,26.508720,9.145553,0.790028,0.653895,0.681843,1.000000,
38.878113,1.368908,9.172200,0.717190,0.375429,0.321990,1.000000,
26.183291,14.786874,9.240116,0.305595,0.328070,0.213731,1.000000,
30.059309,17.412999,9.134887,0.143576,0.032114,0.662651,1.000000,
41.878347,28.468473,9.082805,0.992894,0.438448,0.001169,1.000000,
40.480670,18.949602,9.217752,0.773078,0.821108,0.751713,1.000000,
21.903462,14.175933,9.119125,0.513236,0.652298,0.737164,1.000000,
32.502037,3.647569,9.116651,0.378190,0.994471,0.554559,1.000000,
21.031376,8.391321,9.181780,0.266309,0.599873,0.996080,1.000000,
36.219989,23.076401,9.005578,0.596823,0.518671,0.381783,1.000000,
33.994150,22.523941,9.207247,0.107885,0.072206,0.851589,1.000000,
28.818994,0.542535,9.139200,0.683440,0.662953,0.956350,1.000000,
27.177340,25.453682,9.230729,0.206239,0.410109,0.184168,1.000000,
22.157963,27.070398,9.100485,0.888389,0.259837,0.277026,1.000000,
35.714481,20.281170,9.048624,0.618593,0.763629,0.181519,1.000000,
39.752310,1.217948,9.175413,0.035653,0.880712,0.935658,1.000000,
36.246523,14.862572,9.073980,0.849425,0.548361,0.679308,1.000000,
33.295948,20.597421,9.029519,0.139910,0.451463,0.343854,1.000000,
40.996370,1.106117,9.122946,0.230725,0.935262,0.480764,1.000000,
28.575705,7.517196,9.246957,0.375598,0.083413,0.494341,1.000000,
22.916299,9.493348,9.049197,0.203095,0.368041,0.378104,1.000000,
31.225254,5.004287,9.061703,0.667364,0.033132,0.433355,1.000000,
24.477267,13.788782,9.029264,0.125272,0.046005,0.897662,1.000000,
26.403815,27.535208,9.231039,0.837356,0.640590,0.316420,1.000000,
21.036627,1.470460,9.295416,0.702801,0.510186,0.709805,1.000000,
37.028266,8.457855,9.132418,0.294082,0.561798,0.798310,1.000000,
37.039718,24.454035,9.039188,0.752997,0.281449,0.970116,1.000000,
21.329197,26.793380,9.073500,0.835649,0.678728,0.531878,1.000000,
23.598723,23.708273,9.259909,0.271649,0.626863,0.401047,1.000000,
22.689273,0.679184,9.019716,0.524774,0.708945,0.840666,1.000000,
22.639544,2.376851,9.018102,0.009992,0.615367,0.166252,1.000000,
33.416146,27.626091,9.078006,0.742271,0.449572,0.474256,1.000000,
31.418687,15.424195,9.134089,0.967452,0.727487,0.167952,1.000000,
31.351718,1.274002,9.202547,0.976095,0.984814,0.213587,1.000000,
34.612177,23.718821,9.078446,0.663508,0.534476,0.445252,1.000000,
38.655606,21.843399,9.208853,0.419750,0.779882,0.489453,1.000000,
21.360147,2.861994,9.166664,0.008475,0.991528,0.972811,1.000000,
38.725242,23.684568,9.012900,0.362943,0.636587,0.646337,1.000000,
37.209826,21.214779,9.049979,0.689644,0.273274,0.962430,1.000000,
27.071256,11.694433,9.176003,0.404637,0.603080,0.772164,1.000000,
35.713307,27.184069,9.152817,0.236858,0.636040,0.904926,1.000000,
40.173894,3.820356,9.299810,0.956744,0.911086,0.024717,1.000000,
40.842839,13.810253,9.293565,0.246547,0.615642,0.931668,1.000000,
26.627443,15.818486,9.229435,0.038071,0.943665,0.240407,1.000000,
24.241572,18.421497,9.070272,0.263306,0.255734,0.161266,1.000000,
28.782523,1.553453,9.221072,0.807070,0.198206,0.961316,1.000000,
25.679091,0.645988,9.200005,0.796613,0.443870,0.463769,1.000000,
21.551493,3.344410,9.186670,0.126834,0.877172,0.081423,1.000000,
24.802675,16.658994,9.256636,0.128315,0.348390,0.862250,1.000000,
26.120827,18.152105,9.164489,0.065221,0.107522,0.026332,1.000000,
41.939487,23.521302,9.271525,0.829965,0.764735,0.889995,1.000000,
34.753619,28.642684,9.005328,0.586604,0.896277,0.805963,1.000000,
23.474510,5.829457,9.175760,0.339317,0.188643,0.386484,1.000000,
38.320111,14.000309,9.084337,0.757696,0.673522,0.656803,1.000000,
36.359874,27.333633,9.223166,0.678122,0.515890,0.341955,1.000000,
36.001974,12.478757,9.064776,0.270389,0.861963,0.217577,1.000000,
32.701577,8.940381,9.015289,0.613664,0.298155,0.848463,1.000000,
29.002435,7.720787,9.084549,0.476206,0.303297,0.086127,1.000000,
28.294458,24.957125,9.040059,0.200779,0.221104,0.902733,1.000000,
22.792956,20.836069,9.137059,0.588495,0.139834,0.666654,1.000000,
25.455528,0.185354,9.066890,0.859860,0.959012,0.176436,1.000000,
22.860003,19.114564,9.165981,0.739586,0.680683,0.611484,1.000000,
36.950225,24.450379,9.021345,0.848393,0.804794,0.994110,1.000000,
22.462055,19.839584,9.029248,0.514583,0.536206,0.333447,1.000000,
33.301318,10.048045,9.097296,0.341103,0.821456,0.448129,1.000000,
26.938628,28.774772,9.188646,0.181199,0.262433,0.503301,1.000000,
31.954837,16.060396,9.225518,0.081830,0.695705,0.054959,1.000000,
41.459673,16.999194,9.133814,0.463069,0.851032,0.552142,1.000000,
35.368508,3.475883,9.069430,0.091349,0.087153,0.447257,1.000000,
29.431103,15.267475,9.170322,0.589521,0.965787,0.184999,1.000000,
23.200207,24.449197,9.063866,0.840339,0.700918,0.115418,1.000000,
29.712614,18.968133,9.081551,0.040552,0.075536,0.135511,1.000000,
32.501686,3.902765,9.052772,0.384850,0.942840,0.949360,1.000000,
25.858367,15.997283,9.232683,0.529906,0.962463,0.547912,1.000000,
21.126621,28.532483,9.024559,0.648344,0.388753,0.090027,1.000000,
32.363854,2.339821,9.164618,0.109254,0.576942,0.826523,1.000000,
39.477841,13.101943,9.219617,0.757738,0.817162,0.476045,1.000000,
28.946833,23.449835,9.195974,0.394061,0.076544,0.908893,1.000000,
38.356412,4.909197,9.195910,0.035316,0.865313,0.194986,1.000000,
24.207459,20.785126,9.206600,0.062574,0.181372,0.435128,1.000000,
33.605973,13.040414,9.033237,0.009991,0.834674,0.688347,1.000000,
38.605553,24.597104,9.107355,0.575906,0.841036,0.882798,1.000000,
27.768229,16.632344,9.180283,0.761307,0.508618,0.465711,1.000000,
29.525094,23.644379,9.104373,0.087062,0.520019,0.081737,1.000000,
29.705448,8.036942,9.243617,0.062910,0.366895,0.680664,1.000000,
33.139951,15.878477,9.035168,0.640136,0.923601,0.091109,1.000000,
23.701258,19.476380,9.124781,0.904884,0.700228,0.056193,1.000000,
23.187594,5.428144,9.238434,0.410024,0.990729,0.987759,1.000000,
24.015508,5.942873,9.263017,0.781693,0.968966,0.233815,1.000000,
30.234862,4.669400,9.105964,0.505994,0.092728,0.812286,1.000000,
30.908764,29.575737,9.244521,0.262406,0.370596,0.141707,1.000000,
35.420576,7.516945,9.036949,0.379200,0.530163,0.788046,1.000000,
28.546047,11.178742,9.104408,0.472542,0.080593,0.537245,1.000000,
27.498963,14.379583,9.138177,0.719774,0.704305,0.235604,1.000000,
21.864284,9.132542,9.136610,0.579472,0.346972,0.409171,1.000000,
40.897910,21.342769,9.115834,0.467566,0.112292,0.163431,1.000000,
22.566942,14.126323,9.018673,0.258757,0.941901,0.441078,1.000000,
40.943775,18.801058,9.126221,0.643356,0.207346,0.426830,1.000000,
25.881662,6.248376,9.297350,0.038296,0.009805,0.314108,1.000000,
22.794877,11.748249,9.242562,0.060638,0.868563,0.941880,1.000000,
36.298588,5.132204,9.164901,0.739655,0.678635,0.246179,1.000000,
36.833982,17.416005,9.242022,0.021821,0.171705,0.998126,1.000000,
39.798602,8.302926,9.136688,0.649107,0.176661,0.056227,1.000000,
33.661549,2.761334,9.176161,0.888045,0.895855,0.863606,1.000000,
31.115693,7.819087,9.299636,0.899797,0.080977,0.586156,1.000000,
27.735714,25.115958,9.220099,0.294081,0.071843,0.586768,1.000000,
30.727957,22.588826,9.140015,0.812785,0.023435,0.393785,1.000000,
30.606799,10.935845,9.184926,0.567494,0.572509,0.485465,1.000000,
33.382060,17.989308,9.038725,0.933047,0.325391,0.496819,1.000000,
36.425279,10.281975,9.269025,0.798510,0.524913,0.801230,1.000000,
41.985678,13.094393,9.049960,0.276672,0.401908,0.428971,1.000000,
38.385876,7.746622,9.066723,0.998440,0.629231,0.606026,1.000000,
26.870242,12.962196,9.188499,0.726772,0.631625,0.632626,1.000000,
38.467288,1.067519,9.148269,0.286611,0.342676,0.525693,1.000000,
32.092353,2.361856,9.138324,0.591552,0.956660,0.404057,1.000000,
21.156333,10.183692,9.031092,0.749114,0.333345,0.689584,1.000000,
36.897120,6.253156,9.026424,0.450236,0.671042,0.425232,1.000000,
38.862650,22.296180,9.272238,0.041102,0.026174,0.238702,1.000000,
25.726853,14.946407,9.119571,0.955692,0.861773,0.774438,1.000000,
30.445846,2.055413,9.007335,0.483106,0.335173,0.199937,1.000000,
39.636703,11.704774,9.140066,0.083204,0.920069,0.333390,1.000000,
22.943369,7.765207,9.257487,0.053213,0.246080,0.346075,1.000000,
31.423870,22.655257,9.259071,0.630885,0.077658,0.439280,1.000000,
25.801478,26.370863,9.151637,0.304867,0.283444,0.840495,1.000000,
23.325469,26.062864,9.146365,0.740228,0.302942,0.798128,1.000000,
30.455134,6.374818,9.071045,0.562932,0.622158,0.665766,1.000000,
21.669256,13.364303,9.291155,0.712467,0.581784,0.253354,1.000000,
25.907574,0.672436,9.043813,0.645665,0.692317,0.349255,1.000000,
31.319627,23.296497,9.036517,0.306853,0.143561,0.455210,1.000000,
28.228373,12.021401,9.092808,0.543580,0.348005,0.706724,1.000000,
33.405719,18.699874,9.263894,0.797506,0.623393,0.499062,1.000000,
25.876970,29.206572,9.083988,0.678071,0.858977,0.348409,1.000000,
39.691698,11.370635,9.180391,0.973903,0.471568,0.806471,1.000000,
32.917165,20.905266,9.080810,0.660244,0.690720,0.173125,1.000000,
38.437229,13.569277,9.274087,0.246552,0.093759,0.214908,1.000000,
24.524982,13.304541,9.181615,0.450802,0.057598,0.845380,1.000000,
27.593700,7.312754,9.048669,0.251942,0.825202,0.433225,1.000000,
33.107985,5.032042,9.276023,0.760499,0.090790,0.940036,1.000000,
23.555069,19.332553,9.032068,0.522211,0.206378,0.782387,1.000000,
35.035046,0.380255,9.043062,0.108614,0.793240,0.828082,1.000000,
24.791601,0.326014,9.191871,0.686299,0.681732,0.275293,1.000000,
24.737009,12.405546,9.079503,0.662555,0.469991,0.388151,1.000000,
38.014359,9.704164,9.002989,0.905743,0.897769,0.933597,1.000000,
22.207027,10.338449,9.255783,0.489806,0.408530,0.445935,1.000000,
33.248384,7.325352,9.092467,0.463341,0.658548,0.263173,1.000000,
35.787792,12.295604,9.272558,0.663417,0.958419,0.737101,1.000000,
39.986081,1.443051,9.137505,0.937509,0.301820,0.555511,1.000000,
27.079129,28.445817,9.098593,0.326865,0.724856,0.507722,1.000000,
39.058104,1.112573,9.297386,0.023212,0.751902,0.346667,1.000000,
29.608719,16.019393,9.244062,0.773083,0.185631,0.004508,1.000000,
41.957761,15.711738,9.088518,0.084870,0.568380,0.282702,1.000000,
33.943722,2.600136,9.262765,0.535649,0.061113,0.845259,1.000000,
41.163008,6.952202,9.095074,0.798365,0.683282,0.314815,1.000000,
21.814530,11.504590,9.287935,0.547524,0.668726,0.941320,1.000000,
24.786058,12.741581,9.278578,0.802823,0.134200,0.668266,1.000000,
23.332496,23.208530,9.148842,0.315577,0.893097,0.010256,1.000000,
24.911532,25.589011,9.147528,0.396500,0.169664,0.736610,1.000000,
39.427628,28.372419,9.297661,0.470662,0.544110,0.380752,1.000000,
33.918578,3.546995,9.118459,0.264029,0.034614,0.998992,1.000000,
36.912700,5.631574,9.284182,0.777337,0.814564,0.202681,1.000000,
32.443307,3.273685,9.027420,0.494089,0.595102,0.149762,1.000000,
25.128364,13.634072,9.114824,0.626914,0.405800,0.801108,1.000000,
36.973449,6.065199,9.219156,0.512241,0.644035,0.965380,1.000000,
24.617348,8.499609,9.223857,0.844484,0.366343,0.921387,1.000000,
39.092744,10.204739,9.052022,0.801001,0.999970,0.769141,1.000000,
38.461969,18.311270,9.108588,0.495673,0.706045,0.433092,1.000000,
36.730099,19.700150,9.198408,0.867136,0.196802,0.052887,1.000000,
36.145466,29.390240,9.188330,0.497111,0.829573,0.960031,1.000000,
31.984150,12.711277,9.217421,0.961799,0.302489,0.155814,1.000000,
40.156464,25.060891,9.201781,0.072833,0.523018,0.140436,1.000000,
26.898738,5.684104,9.012868,0.377426,0.624865,0.715068,1.000000,
23.325486,11.737008,9.089929,0.590923,0.004751,0.945602,1.000000,
28.443087,16.863214,9.146212,0.215851,0.775371,0.744923,1.000000,
23.474005,28.705180,9.103178,0.676436,0.212396,0.561135,1.000000,
33.724542,1.326546,9.022668,0.667109,0.203979,0.145361,1.000000,
28.557573,1.936019,9.100861,0.754904,0.794802,0.634090,1.000000,
33.077710,27.250072,9.036736,0.781240,0.269900,0.627567,1.000000,
34.006707,20.819043,9.042822,0.615839,0.830791,0.848272,1.000000,
36.138048,25.628698,9.112929,0.809909,0.997261,0.902795,1.000000,
32.701799,23.171027,9.227588,0.290084,0.395376,0.121395,1.000000,
30.439781,28.741467,9.259360,0.260202,0.899643,0.079647,1.000000,
28.256033,11.479537,9.256986,0.060246,0.530843,0.541554,1.000000,
22.265269,12.632140,9.039910,0.721928,0.082251,0.843448,1.000000,
30.324917,7.824196,9.258970,0.446056,0.418549,0.054924,1.000000,
25.638497,14.924607,9.178289,0.123879,0.018904,0.797654,1.000000,
36.219945,0.287159,9.177079,0.708518,0.901521,0.011873,1.000000,
36.600469,26.363061,9.275395,0.981921,0.374959,0.295383,1.000000,
26.480423,9.897278,9.016782,0.439173,0.011844,0.219784,1.000000,
21.082510,5.820301,9.211403,0.171681,0.501150,0.980086,1.000000,
37.499639,8.462872,9.149394,0.007960,0.443384,0.092657,1.000000,
41.727233,28.502156,9.109743,0.277198,0.852444,0.721647,1.000000,
33.778496,19.241595,9.299464,0.447194,0.500863,0.805763,1.000000,
28.547869,8.372769,9.286499,0.040318,0.112195,0.344434,1.000000,
41.250839,9.216886,9.153997,0.057064,0.791401,0.961038,1.000000,
39.337672,13.285065,9.201084,0.043887,0.934827,0.787530,1.000000,
30.137837,26.748065,9.000567,0.655370,0.855888,0.463234,1.000000,
24.218802,9.760113,9.147886,0.031445,0.155007,0.412391,1.000000,
34.678671,11.236251,9.159379,0.861233,0.081301,0.010954,1.000000,
24.370668,23.264415,9.091762,0.196094,0.628262,0.381937,1.000000,
27.710190,19.722859,9.257951,0.230992,0.096957,0.044886,1.000000,
24.125622,0.180320,9.019863,0.093668,0.033433,0.842530,1.000000,
24.384686,2.627141,9.160326,0.915506,0.323610,0.060565,1.000000,
26.294038,7.492599,9.001893,0.162854,0.645051,0.173059,1.000000,
31.132864,7.848398,9.198602,0.353449,0.584276,0.988786,1.000000,
29.989861,3.373832,9.161649,0.081423,0.672177,0.342016,1.000000,
39.794250,14.843512,9.133678,0.596582,0.792689,0.533906,1.000000,
27.038936,14.136848,9.235238,0.386308,0.380194,0.940765,1.000000,
27.302079,16.083567,9.048170,0.471136,0.079293,0.038341,1.000000,
32.861060,28.027578,9.046372,0.986696,0.434192,0.174073,1.000000,
37.117276,1.862736,9.243703,0.163752,0.785474,0.169871,1.000000,
40.035000,2.529243,9.293364,0.944747,0.304882,0.777156,1.000000,
28.687464,24.059327,9.085541,0.462052,0.734032,0.033992,1.000000,
27.424373,15.279800,9.197192,0.942143,0.100197,0.490370,1.000000,
33.680329,11.693799,9.242021,0.330503,0.172767,0.746964,1.000000,
31.273522,3.561525,9.246010,0.888940,0.925116,0.766697,1.000000,
26.133078,19.657275,9.091542,0.031806,0.788422,0.306454,1.000000,
39.320610,7.826887,9.022262,0.712155,0.778826,0.197019,1.000000,
32.157863,15.613405,9.185279,0.856124,0.877306,0.501363,1.000000,
36.364689,1.021702,9.040848,0.289137,0.909721,0.029427,1.000000,
29.501556,28.879682,9.242747,0.620482,0.930386,0.428843,1.000000,
36.162136,27.970179,9.293365,0.980286,0.404006,0.582273,1.000000,
35.780045,15.682603,9.270128,0.507562,0.289149,0.070604,1.000000,
27.244712,18.823365,9.054827,0.811583,0.768709,0.682110,1.000000,
22.692177,25.367435,9.276609,0.689113,0.943880,0.872217,1.000000,
34.002212,26.263310,9.040968,0.036642,0.279397,0.048825,1.000000,
30.835718,1.625160,9.013006,0.112679,0.371130,0.070446,1.000000,
41.009634,2.138084,9.201837,0.986959,0.273215,0.370328,1.000000,
28.039955,5.862152,9.038309,0.259618,0.473539,0.182226,1.000000,
35.565398,16.249166,9.065780,0.071766,0.960544,0.063153,1.000000,
30.760815,16.388794,9.197656,0.015937,0.101757,0.326634,1.000000,
26.321629,7.856127,9.096776,0.499250,0.540645,0.860567,1.000000,
31.019689,6.281273,9.150744,0.212841,0.307531,0.595197,1.000000,
33.849110,22.086007,9.160327,0.802724,0.151651,0.420406,1.000000,
30.424061,12.182918,9.137728,0.569490,0.422623,0.502019,1.000000,
22.808513,15.464695,9.155604,0.329814,0.324211,0.350203,1.000000,
41.430098,21.317373,9.171650,0.516173,0.556407,0.128875,1.000000,
25.171956,29.744107,9.115272,0.413392,0.184440,0.535247,1.000000,
22.883693,4.678640,9.256823,0.542996,0.214903,0.397499,1.000000,
32.403659,14.231637,9.106688,0.969468,0.565262,0.597427,1.000000,
24.410168,14.378426,9.257577,0.074840,0.908647,0.343169,1.000000,
21.100256,12.717435,9.126018,0.047200,0.699900,0.191431,1.000000,
32.464636,14.620221,9.069120,0.275055,0.885462,0.005060,1.000000,
34.243826,29.828388,9.216995,0.617125,0.743195,0.133101,1.000000,
29.255322,2.440838,9.028069,0.397193,0.444682,0.536710,1.000000,
32.917144,0.414214,9.045969,0.706848,0.118603,0.157018,1.000000,
22.748365,29.596160,9.271520,0.387473,0.939270,0.427600,1.000000,
31.519303,28.505416,9.172120,0.125599,0.596452,0.921580,1.000000,
22.807568,23.528446,9.204706,0.356002,0.331013,0.826954,1.000000,
26.291870,2.227747,9.023474,0.838023,0.293001,0.986116,1.000000,
24.633597,12.527687,9.105622,0.718994,0.504082,0.856151,1.000000,
21.686660,10.777110,9.105997,0.566647,0.844781,0.201120,1.000000,
39.406315,29.600921,9.034519,0.279683,0.945664,0.326064,1.000000,
22.212737,28.171356,9.147731,0.585333,0.848311,0.842998,1.000000,
30.819371,0.463058,9.129986,0.389153,0.544018,0.067359,1.000000,
33.754313,14.197841,9.069689,0.173213,0.520840,0.797087,1.000000,
28.512167,26.944845,9.059818,0.024247,0.526218,0.711238,1.000000,
30.371914,4.309956,9.077139,0.914601,0.625083,0.356854,1.000000,
37.720755,7.371758,9.028191,0.846234,0.278809,0.409761,1.000000,
38.089065,3.943974,9.080877,0.870763,0.521887,0.066035,1.000000,
27.362696,21.092397,9.058935,0.752342,0.330242,0.836856,1.000000,
26.183934,9.901409,9.125249,0.612079,0.275095,0.296995,1.000000,
29.176045,3.104282,9.005393,0.201024,0.372911,0.896896,1.000000,
24.450404,6.639499,9.057587,0.257091,0.986322,0.306498,1.000000,
36.775249,25.505045,9.079627,0.009588,0.753354,0.406555,1.000000,
22.271800,23.643505,9.178984,0.339294,0.445990,0.856754,1.000000,
22.918075,5.570127,9.034947,0.749389,0.845778,0.476680,1.000000,
40.738155,11.845349,9.046123,0.281597,0.501424,0.503894,1.000000,
33.257054,7.788927,9.126283,0.003856,0.551872,0.681806,1.000000,
39.017550,17.963042,9.013231,0.030492,0.742759,0.278806,1.000000,
28.986256,20.034583,9.143314,0.691452,0.272418,0.820628,1.000000,
28.567713,2.293201,9.285339,0.272204,0.386349,0.997898,1.000000,
27.133648,11.780455,9.267467,0.098666,0.753610,0.751780,1.000000,
22.798120,6.946862,9.273350,0.381469,0.493471,0.932643,1.000000,
34.557468,28.385097,9.064519,0.633345,0.665179,0.712047,1.000000,
40.597117,10.782477,9.187580,0.341023,0.901870,0.643918,1.000000,
32.432386,8.721757,9.004486,0.630938,0.334291,0.925972,1.000000,
35.069453,2.878332,9.235180,0.653144,0.295571,0.760682,1.000000,
40.427339,19.348287,9.002541,0.916665,0.618101,0.158006,1.000000,
33.067974,14.883536,9.228341,0.718189,0.182479,0.847029,1.000000,
40.168750,7.993154,9.099364,0.112940,0.212147,0.981353,1.000000,
40.478435,21.986078,9.031364,0.685025,0.806353,0.486846,1.000000,
27.042019,28.478985,9.272640,0.237834,0.108719,0.932633,1.000000,
40.754580,28.971559,9.231665,0.878212,0.677312,0.532654,1.000000,
38.105917,24.853612,9.037291,0.629586,0.194885,0.699837,1.000000,
32.029214,5.696420,9.287905,0.056543,0.371790,0.684406,1.000000,
38.211259,23.534165,9.101969,0.699652,0.539718,0.961943,1.000000,
35.629082,13.791736,9.182490,0.430507,0.251138,0.714543,1.000000,
39.364454,3.761128,9.172678,0.234610,0.719150,0.742016,1.000000,
32.921907,11.493457,9.295798,0.663722,0.321164,0.282242,1.000000,
35.246940,2.022751,9.295969,0.591386,0.037639,0.870180,1.000000,
21.605146,27.315170,9.137817,0.755558,0.811861,0.122703,1.000000,
36.947881,29.262210,9.112867,0.326978,0.045310,0.391394,1.000000,
24.683823,20.942324,9.009538,0.732495,0.297524,0.772514,1.000000,
32.757466,7.378818,9.215735,0.029376,0.303918,0.834195,1.000000,
32.175668,20.263137,9.075564,0.108581,0.536385,0.508379,1.000000,
27.384222,2.697189,9.122029,0.878328,0.120199,0.998263,1.000000,
35.701471,29.050766,9.247724,0.328427,0.795267,0.664267,1.000000,
40.993455,19.943390,9.170079,0.981540,0.502551,0.095399,1.000000,
32.440382,3.395630,9.172846,0.592181,0.227985,0.694871,1.000000,
26.440824,2.482985,9.091251,0.259507,0.831282,0.607524,1.000000,
21.442841,1.075669,9.086858,0.352293,0.113443,0.371712,1.000000,
36.905874,17.159202,9.081422,0.487402,0.999325,0.019256,1.000000,
21.165220,25.188558,9.212837,0.276685,0.758302,0.931363,1.000000,
26.575363,23.050424,9.072116,0.802067,0.518460,0.220574,1.000000,
32.551112,29.988589,9.167995,0.265914,0.476625,0.090330,1.000000,
23.909263,18.153182,9.097809,0.190356,0.272508,0.546627,1.000000,
30.366996,11.017111,9.083451,0.743233,0.963162,0.433097,1.000000,
23.978734,0.507305,9.079616,0.679533,0.319447,0.529256,1.000000,
39.388335,7.063362,9.150741,0.700893,0.452952,0.895519,1.000000,
32.552431,20.378142,9.170370,0.163979,0.533218,0.070089,1.000000,
33.275552,12.870259,9.037833,0.385288,0.783380,0.077133,1.000000,
32.146780,4.988454,9.014661,0.635418,0.412335,0.197152,1.000000,
39.051519,16.282282,9.243952,0.153003,0.909796,0.640477,1.000000,
31.650766,17.658344,9.060434,0.163257,0.120651,0.320327,1.000000,
36.461679,24.348200,9.215672,0.811291,0.872467,0.103026,1.000000,
39.007226,14.166302,9.205498,0.822864,0.651388,0.560464,1.000000,
23.399868,27.554097,9.049171,0.877562,0.431496,0.428826,1.000000,
30.098413,25.904579,9.254028,0.118951,0.137163,0.710051,1.000000,
26.980205,15.655112,9.142798,0.641177,0.018417,0.657516,1.000000,
39.239959,15.868122,9.212710,0.562427,0.365739,0.949813,1.000000,
22.406056,20.387555,9.089128,0.857012,0.017309,0.555008,1.000000,
33.839484,20.450534,9.068069,0.747667,0.471443,0.094728,1.000000,
28.231006,5.671852,9.270758,0.030844,0.131659,0.429279,1.000000,
26.663170,14.167572,9.186019,0.853546,0.844853,0.309999,1.000000,
32.972742,18.508669,9.069677,0.468736,0.957407,0.729679,1.000000,
23.775824,27.777788,9.180000,0.485880,0.196130,0.197258,1.000000,
23.834431,4.984475,9.040295,0.515795,0.737742,0.157105,1.000000,
40.635659,25.923468,9.016107,0.388461,0.055588,0.227186,1.000000,
28.048345,8.227877,9.061796,0.384297,0.514494,0.209904,1.000000,
25.150000,17.219188,9.068863,0.204799,0.118785,0.397195,1.000000,
22.503066,3.744130,9.192206,0.108758,0.642652,0.003315,1.000000,
40.147395,15.529183,9.065905,0.715041,0.162659,0.644116,1.000000,
41.095774,2.425296,9.200718,0.022309,0.061672,0.554864,1.000000,
28.545728,11.108079,9.198338,0.997675,0.558503,0.919325,1.000000,
23.017902,20.222838,9.091013,0.075922,0.144378,0.534051,1.000000,
39.764262,0.790327,9.170051,0.392316,0.368282,0.155540,1.000000,
29.056537,19.553674,9.196058,0.332060,0.201192,0.183942,1.000000,
24.320740,26.780174,9.199710,0.653643,0.000180,0.994945,1.000000,
34.479571,13.506569,9.151030,0.493283,0.810001,0.791770,1.000000,
21.806575,26.008096,9.009430,0.023318,0.903070,0.408768,1.000000,
22.403838,22.514591,9.229004,0.040732,0.440653,0.224675,1.000000,
32.318704,13.444877,9.236052,0.403945,0.365834,0.390052,1.000000,
40.283361,18.199542,9.247178,0.469138,0.364805,0.430876,1.000000,
24.500974,21.007277,9.114854,0.953819,0.287875,0.073197,1.000000,
23.616803,7.004116,9.106082,0.288967,0.835094,0.807724,1.000000,
21.287586,13.622475,9.099155,0.658367,0.975880,0.085386,1.000000,
37.018016,1.431753,9.210735,0.667151,0.214291,0.895469,1.000000,
36.177838,18.339934,9.115168,0.009961,0.666012,0.879447,1.000000,
38.943223,0.512698,9.009341,0.716089,0.440749,0.109379,1.000000,
26.249098,18.729593,9.136993,0.471758,0.412788,0.072592,1.000000,
33.912906,5.830908,9.083825,0.088085,0.846552,0.437663,1.000000,
22.020837,15.174693,9.100884,0.454651,0.502365,0.889032,1.000000,
23.368686,14.393963,9.015655,0.369553,0.229018,0.579116,1.000000,
28.311096,21.316414,9.161996,0.945655,0.712043,0.972058,1.000000,
30.910934,20.709916,9.114281,0.245851,0.432182,0.571903,1.000000,
22.670172,21.781499,9.299532,0.793381,0.415946,0.315565,1.000000,
35.322617,13.231068,9.158886,0.903756,0.931265,0.806490,1.000000,
32.031033,9.858991,9.265932,0.907446,0.147120,0.477670,1.000000,
31.833198,16.413109,9.244672,0.225576,0.019838,0.626379,1.000000,
40.748191,25.751492,9.097407,0.334136,0.424017,0.211652,1.000000,
23.766275,27.431304,9.079849,0.016859,0.946802,0.042016,1.000000,
34.666408,18.779987,9.083344,0.417574,0.730770,0.091584,1.000000,
38.790927,15.516332,9.226333,0.816227,0.311909,0.603466,1.000000,
28.263974,16.124435,9.293678,0.841038,0.155075,0.635395,1.000000,
22.431115,4.830092,9.192738,0.084058,0.989113,0.410150,1.000000,
21.241089,4.146948,9.255673,0.969789,0.852899,0.695006,1.000000,
21.142591,17.863673,9.256572,0.151147,0.673597,0.215297,1.000000,
27.141970,18.208798,9.167658,0.775998,0.269521,0.076840,1.000000,
25.570908,19.329259,9.075927,0.502416,0.902550,0.235644,1.000000,
27.339942,1.908165,9.112989,0.725189,0.265706,0.159144,1.000000,
33.503343,1.903544,9.163513,0.781529,0.853652,0.717123,1.000000,
32.837551,18.115651,9.013446,0.952114,0.419129,0.998846,1.000000,
25.577911,12.247646,9.100408,0.608593,0.085687,0.393584,1.000000,
29.202269,13.164152,9.240774,0.304292,0.935458,0.020138,1.000000,
28.100586,2.382396,9.148069,0.895436,0.823568,0.629452,1.000000,
36.663325,12.229906,9.077640,0.357811,0.932453,0.177060,1.000000,
28.748877,3.387023,9.085404,0.118430,0.637031,0.588838,1.000000,
29.887629,29.913250,9.245077,0.361174,0.986515,0.530245,1.000000,
33.000142,21.176734,9.177403,0.436624,0.629252,0.343399,1.000000,
33.350525,13.963329,9.118160,0.706524,0.429087,0.715416,1.000000,
21.603661,3.614751,9.033273,0.894493,0.277017,0.350587,1.000000,
22.913734,22.523034,9.298946,0.109877,0.829330,0.543172,1.000000,
31.521446,28.957572,9.001590,0.872282,0.929461,0.468700,1.000000,
40.283311,26.002066,9.075457,0.087325,0.954576,0.013046,1.000000,
26.199937,26.392916,9.201106,0.215694,0.166917,0.131132,1.000000,
34.711696,5.209802,9.186357,0.007543,0.180367,0.696978,1.000000,
22.369268,8.631942,9.126595,0.394837,0.947705,0.399591,1.000000,
21.343087,25.539094,9.189082,0.674003,0.632071,0.220834,1.000000,
31.921877,13.876805,9.011803,0.789565,0.546436,0.111920,1.000000,
34.699315,29.914708,9.133787,0.519205,0.646606,0.431683,1.000000,
29.277244,8.432790,9.098458,0.555524,0.990235,0.298965,1.000000,
28.993350,10.745359,9.239250,0.493536,0.813094,0.639238,1.000000,
28.761711,22.200209,9.256681,0.935349,0.913359,0.082598,1.000000,
36.815730,16.398593,9.277004,0.891754,0.559122,0.082275,1.000000,
33.849898,17.143424,9.088783,0.583566,0.312863,0.802512,1.000000,
26.022179,2.215578,9.270777,0.514620,0.443957,0.740358,1.000000,
40.430463,2.497180,9.028579,0.350414,0.265958,0.386083,1.000000,
29.019611,5.925470,9.118496,0.169004,0.142716,0.986047,1.000000,
28.842554,26.904230,9.203401,0.647259,0.767052,0.604998,1.000000,
27.925288,20.205327,9.046026,0.150844,0.609008,0.361807,1.000000,
39.979469,18.220237,9.019579,0.132418,0.217773,0.761032,1.000000,
30.788450,1.549527,9.031912,0.103859,0.469354,0.719208,1.000000,
31.672211,15.235367,9.028938,0.820622,0.794679,0.518110,1.000000,
37.689309,9.028699,9.118767,0.106948,0.586073,0.109116,1.000000,
23.837107,7.216266,9.295551,0.360379,0.913567,0.108498,1.000000,
25.304911,23.279859,9.170686,0.757811,0.752013,0.202774,1.000000,
24.993700,26.775409,9.084682,0.867961,0.809329,0.704924,1.000000,
21.039713,1.592088,9.200587,0.076719,0.727014,0.687999,1.000000,
39.013276,16.699012,9.185807,0.566610,0.845382,0.847698,1.000000,
21.210195,4.540453,9.274639,0.345948,0.615888,0.617552,1.000000,
21.182376,29.680109,9.062221,0.171508,0.613520,0.788292,1.000000,
38.650190,15.786322,9.015297,0.827763,0.009681,0.627333,1.000000,
37.170907,16.095147,9.210918,0.592392,0.563145,0.115714,1.000000,
39.000355,21.374263,9.047917,0.815088,0.854077,0.230461,1.000000,
40.602494,24.562003,9.201317,0.341470,0.451891,0.313997,1.000000,
21.316535,26.223043,9.020494,0.901904,0.338306,0.313137,1.000000,
24.986728,18.651345,9.008924,0.116345,0.085169,0.920542,1.000000,
35.576182,0.318198,9.252485,0.591515,0.894883,0.058238,1.000000,
41.523248,6.668146,9.226178,0.645342,0.444706,0.699426,1.000000,
33.080474,1.578485,9.029335,0.060499,0.893582,0.501295,1.000000,
32.809774,15.433668,9.062545,0.813281,0.527175,0.515154,1.000000,
40.777260,26.785076,9.026085,0.958598,0.453006,0.450854,1.000000,
35.413467,17.388736,9.259721,0.758701,0.014136,0.834288,1.000000,
27.954308,18.841432,9.007377,0.491899,0.267827,0.473041,1.000000,
28.141186,4.328789,9.075470,0.592951,0.798663,0.728822,1.000000,
40.621801,22.458467,9.184687,0.372795,0.205368,0.402763,1.000000,
27.457413,8.419832,9.140516,0.148059,0.642817,0.116031,1.000000,
21.814015,26.063407,9.221507,0.291835,0.693671,0.390245,1.000000,
32.923382,24.063733,9.058565,0.636930,0.097073,0.519080,1.000000,
34.667836,14.651319,9.164477,0.449296,0.739346,0.704666,1.000000,
36.512516,29.207113,9.137736,0.866877,0.976107,0.043829,1.000000,
41.083837,15.814848,9.291412,0.693656,0.757398,0.228010,1.000000,
27.427181,6.526746,9.097261,0.603779,0.206543,0.829731,1.000000,
36.941181,5.897537,9.060783,0.390583,0.175012,0.473029,1.000000,
26.907870,0.530767,9.170183,0.471877,0.910822,0.376390,1.000000,
39.940099,10.329836,9.144939,0.288939,0.269600,0.425628,1.000000,
35.082351,25.059033,9.087725,0.974555,0.189431,0.561484,1.000000,
27.122530,8.239954,9.121545,0.081189,0.435446,0.473875,1.000000,
27.793183,19.726926,9.150828,0.428003,0.912408,0.196835,1.000000,
36.052207,5.093099,9.236903,0.081560,0.190121,0.842608,1.000000,
24.868806,8.838892,9.027980,0.852815,0.709019,0.571392,1.000000,
30.246884,11.118300,9.060445,0.883902,0.763644,0.374767,1.000000,
28.654849,19.467873,9.007432,0.226253,0.272146,0.095739,1.000000,
25.483646,17.033383,9.204409,0.478861,0.295074,0.378095,1.000000,
32.204479,15.367112,9.220605,0.638627,0.961221,0.076051,1.000000,
38.477700,1.812559,9.044841,0.406195,0.213397,0.192702,1.000000,
30.928695,23.334760,9.092971,0.090950,0.380588,0.946943,1.000000,
34.279493,0.900257,9.099546,0.701395,0.667731,0.807712,1.000000,
25.137022,20.411288,9.055979,0.783787,0.374159,0.124464,1.000000,
41.948535,26.782299,9.206286,0.685066,0.683131,0.966166,1.000000,
21.049089,11.130739,9.169389,0.699508,0.975320,0.603003,1.000000,
33.921571,18.708744,9.163262,0.330766,0.668924,0.676603,1.000000,
38.313840,20.780244,9.280065,0.673303,0.697433,0.242707,1.000000,
29.695381,23.549358,9.009425,0.820879,0.247502,0.934836,1.000000,
39.822647,18.972377,9.198692,0.884221,0.872526,0.533139,1.000000,
31.752270,20.708589,9.232552,0.782667,0.776567,0.008773,1.000000,
41.195387,24.078693,9.194384,0.466244,0.140081,0.970461,1.000000,
33.765253,11.273596,9.295418,0.788048,0.252782,0.880165,1.000000,
34.987978,1.436214,9.286508,0.274103,0.557080,0.647333,1.000000,
40.350547,3.089998,9.225224,0.067377,0.509845,0.089231,1.000000,
30.422467,16.214870,9.029039,0.984357,0.976013,0.641930,1.000000,
34.299259,25.480047,9.140721,0.465789,0.779914,0.073186,1.000000,
25.441813,15.974081,9.031245,0.149328,0.242948,0.299700,1.000000,
32.767210,27.258282,9.111646,0.372703,0.088680,0.625288,1.000000,
23.175794,2.689663,9.020933,0.403533,0.803446,0.028786,1.000000,
27.138906,25.918369,9.273522,0.558662,0.703194,0.158628,1.000000,
32.424357,25.723547,9.179973,0.794802,0.925652,0.728568,1.000000,
24.798305,26.486871,9.294391,0.266290,0.402484,0.532267,1.000000,
26.797581,2.230814,9.273828,0.363157,0.255174,0.196687,1.000000,
25.884535,10.264767,9.150110,0.120555,0.739929,0.918283,1.000000,
32.525173,6.846397,9.014204,0.517158,0.405613,0.215270,1.000000,
32.698024,25.332295,9.208223,0.795212,0.539227,0.352886,1.000000,
34.030763,4.022851,9.022210,0.903326,0.158754,0.158238,1.000000,
21.013795,26.438947,9.159708,0.140543,0.969613,0.370072,1.000000,
24.943457,5.810194,9.189392,0.226574,0.565562,0.737094,1.000000,
31.001656,25.398703,9.254003,0.306644,0.130138,0.029998,1.000000,
21.381293,6.239429,9.187105,0.503653,0.531001,0.560874,1.000000,
30.973066,20.116185,9.022717,0.220554,0.237427,0.218211,1.000000,
22.608405,6.493378,9.089925,0.373555,0.860023,0.918168,1.000000,
26.264520,1.942418,9.264969,0.381916,0.919890,0.518064,1.000000,
33.204814,12.873755,9.220037,0.736119,0.585039,0.156804,1.000000,
24.171287,9.092366,9.177188,0.810441,0.340987,0.830328,1.000000,
29.614422,17.566929,9.188368,0.751175,0.994179,0.751460,1.000000,
39.753752,7.373567,9.227935,0.202595,0.681116,0.343676,1.000000,
38.943109,22.201582,9.074208,0.052002,0.178858,0.621387,1.000000,
32.397862,6.690618,9.066299,0.971225,0.235844,0.611352,1.000000,
30.669623,0.012557,9.084449,0.010802,0.736397,0.608994,1.000000,
24.137290,0.087827,9.233249,0.511364,0.555456,0.596034,1.000000,
31.266988,27.770955,9.125434,0.145452,0.039626,0.029332,1.000000,
32.951535,1.190772,9.032509,0.537490,0.557155,0.387252,1.000000,
28.170659,16.112242,9.124288,0.895501,0.975225,0.943868,1.000000,
29.776378,5.748437,9.273669,0.453920,0.708834,0.659753,1.000000,
24.712214,4.909519,9.169169,0.168681,0.966406,0.931332,1.000000,
38.530311,20.917345,9.238359,0.375856,0.899624,0.885922,1.000000,
35.191690,20.061659,9.092475,0.267634,0.580171,0.708380,1.000000,
24.894305,23.531826,9.028743,0.986065,0.713341,0.442486,1.000000,
33.833790,15.661627,9.023772,0.898959,0.843687,0.813631,1.000000,
35.808182,23.874562,9.167771,0.630659,0.688287,0.855257,1.000000,
21.594699,17.342229,9.107740,0.310328,0.162470,0.185990,1.000000,
31.938256,15.459480,9.241596,0.558933,0.140398,0.353210,1.000000,
26.441530,11.666380,9.013953,0.774207,0.345576,0.566110,1.000000,
31.672536,17.405469,9.188365,0.082168,0.812737,0.184812,1.000000,
41.438063,14.787888,9.101692,0.727814,0.004961,0.465595,1.000000,
38.182865,16.767920,9.001887,0.452660,0.237734,0.183272,1.000000,
39.033991,25.638432,9.276188,0.144797,0.031866,0.591420,1.000000,
39.828963,20.743799,9.057332,0.087861,0.676943,0.780997,1.000000,
27.289596,1.359876,9.178772,0.896953,0.851611,0.655471,1.000000,
39.480527,27.031784,9.241030,0.454032,0.769413,0.060048,1.000000,
26.359479,7.627643,9.068105,0.888715,0.576447,0.687455,1.000000,
25.035110,16.670870,9.258704,0.405303,0.268798,0.661856,1.000000,
24.918987,18.397203,9.268323,0.551325,0.916119,0.053280,1.000000,
39.083262,24.605121,9.077794,0.086438,0.836647,0.763323,1.000000,
30.336578,16.455609,9.240873,0.777092,0.930324,0.034650,1.000000,
29.118718,0.788123,9.103285,0.128303,0.886399,0.897740,1.000000,
38.472125,25.125661,9.042897,0.114458,0.764557,0.707234,1.000000,
25.336338,28.822648,9.234699,0.565091,0.607904,0.089462,1.000000,
39.853861,24.934738,9.264306,0.968171,0.747671,0.333825,1.000000,
30.649562,12.067317,9.249092,0.423662,0.298199,0.138356,1.000000,
24.432449,15.095662,9.115089,0.498901,0.721261,0.239229,1.000000,
26.643747,19.579418,9.059136,0.786436,0.901460,0.971077,1.000000,
31.934718,20.882791,9.153660,0.584020,0.044069,0.971044,1.000000,
37.219726,23.391707,9.083343,0.469927,0.342488,0.806948,1.000000,
29.135209,26.353075,9.030936,0.473084,0.238401,0.923074,1.000000,
21.932929,6.900348,9.056925,0.339449,0.070693,0.682245,1.000000,
41.723801,24.010830,9.038864,0.627812,0.448427,0.644005,1.000000,
31.983496,22.596609,9.072183,0.125368,0.070638,0.496749,1.000000,
38.717348,29.470078,9.168961,0.557703,0.904038,0.991874,1.000000,
39.729000,3.332782,9.218482,0.917871,0.451075,0.724071,1.000000,
35.397371,21.505917,9.226974,0.337321,0.527844,0.379904,1.000000,
31.874730,20.000605,9.044058,0.327697,0.971393,0.079561,1.000000,
30.281079,5.339390,9.036325,0.576595,0.798676,0.732587,1.000000,
